ply
format ascii 1.0
element vertex 996
property float x
property float y
property float z
property uchar red
property uchar green
property uchar blue
end_header
0.178223 -0.383436 0.37695 255 125 0
-0.075684 -0.306614 0.623851 255 125 0
0.189246 -0.388027 0.35394200000000003 255 125 0
-0.20086400000000001 -0.06238200000000001 0.45223 255 125 0
0.354903 0.8673379999999999 -0.12018699999999999 255 125 0
0.016824000000000002 -0.590073 0.463395 255 125 0
0.08240399999999999 -0.15648900000000002 0.444338 255 125 0
0.17288699999999999 -0.48766000000000004 0.319986 255 125 0
-0.13675299999999999 0.006764 0.45052299999999995 255 125 0
0.294536 -0.332109 0.274505 255 125 0
0.06897400000000001 0.333411 0.11525999999999999 255 125 0
-0.014119999999999999 -0.162512 0.473646 255 125 0
-0.316798 0.028613999999999997 0.34537199999999996 255 125 0
-0.325395 -0.11359000000000001 0.390459 255 125 0
0.318631 -0.06157000000000001 0.19403099999999998 255 125 0
0.220293 -0.525154 0.299483 255 125 0
0.238195 -0.120827 0.366956 255 125 0
-0.39348 -0.6254149999999999 0.180464 255 125 0
-0.09464299999999999 -0.123271 0.479709 255 125 0
-0.075395 -0.280023 0.596062 255 125 0
0.45880699999999996 -0.10921900000000001 -0.054315999999999996 255 125 0
-0.326561 -0.312369 0.36245900000000003 255 125 0
-0.053126 0.469617 -0.567126 255 125 0
0.215863 0.060954999999999995 0.32908899999999996 255 125 0
-0.13247799999999998 -0.022696 0.44588199999999995 255 125 0
0.295458 0.626887 -0.716653 255 125 0
0.021207 -0.029594 0.44231400000000004 255 125 0
-0.18900899999999998 -0.12138499999999999 0.466131 255 125 0
0.480749 0.762985 -0.708525 255 125 0
0.041807 0.063667 0.41424700000000003 255 125 0
-0.022181 0.321684 0.183411 255 125 0
0.14325 -0.586236 0.294223 255 125 0
0.13323800000000002 0.616056 -0.397885 255 125 0
0.558463 0.647025 -0.72996 255 125 0
-0.329518 -0.463567 0.34924 255 125 0
0.041809 -0.142191 0.47748900000000005 255 125 0
0.00851 -0.290937 0.574005 255 125 0
-0.10267000000000001 0.42952799999999997 -0.577574 255 125 0
0.30246300000000004 -0.20684299999999997 0.252805 255 125 0
-0.113347 0.173854 0.33863899999999997 255 125 0
0.022984 -0.004541 0.462876 255 125 0
-0.397059 -0.589504 0.183934 255 125 0
0.332422 -0.14840899999999999 0.197625 255 125 0
-0.39159299999999997 -0.043583 0.296825 255 125 0
-0.28694200000000003 -0.14416199999999998 0.430008 255 125 0
-0.00316 -0.031708999999999994 0.458189 255 125 0
0.091271 0.699627 -0.319062 255 125 0
-0.37800100000000003 -0.066151 0.330482 255 125 0
-0.415562 0.383203 -0.763514 255 125 0
-0.11792000000000001 0.593773 -0.608437 255 125 0
-0.105797 0.057365 0.419392 255 125 0
0.03586 0.645502 -0.39425 255 125 0
0.29104800000000003 -0.669335 0.137613 255 125 0
0.15699200000000002 -0.655031 0.17094700000000002 255 125 0
0.032036 0.080045 0.402577 255 125 0
0.342629 0.789366 -0.76518 255 125 0
0.35328000000000004 -0.39771 0.17439200000000002 255 125 0
0.035319 0.121065 0.37198000000000003 255 125 0
0.315734 0.889742 -0.157817 255 125 0
0.583105 0.71811 -0.7198060000000001 255 125 0
0.26479600000000003 0.090989 0.230742 255 125 0
0.079567 0.16752 0.341623 255 125 0
0.367635 0.558175 -0.753618 255 125 0
-0.337012 -0.26611599999999996 0.380849 255 125 0
0.117282 0.914909 -0.361948 255 125 0
-0.42826499999999995 -0.47803100000000004 0.181573 255 125 0
0.099622 -0.333807 0.434302 255 125 0
-0.303732 0.335597 -0.593819 255 125 0
-0.339093 -0.632803 0.186496 255 125 0
0.517803 0.7010850000000001 -0.725406 255 125 0
-0.381835 -0.12018399999999999 0.34229299999999996 255 125 0
-0.213375 -0.43123 0.600096 255 125 0
-0.37758 -0.27017800000000003 0.304713 255 125 0
0.046806 -0.057651999999999995 0.456557 255 125 0
0.305758 -0.033678 0.275925 255 125 0
-0.334764 -0.624575 0.21718400000000002 255 125 0
-0.18368299999999999 0.474042 -0.605063 255 125 0
0.253125 -0.47234499999999996 0.264911 255 125 0
-0.452887 0.381687 -0.7815409999999999 255 125 0
0.434638 0.62816 -0.709938 255 125 0
0.191111 0.653008 -0.7331989999999999 255 125 0
-0.34081 -0.149783 0.363239 255 125 0
0.13889400000000002 -0.47921499999999995 0.45164499999999996 255 125 0
-0.341527 0.05384 0.303359 255 125 0
-0.409686 -0.10525599999999999 0.32143 255 125 0
0.21168800000000002 -0.14598599999999998 0.389953 255 125 0
-0.17793699999999998 -0.5602229999999999 0.48839899999999997 255 125 0
0.14388900000000002 -0.2677 0.43415299999999996 255 125 0
0.030008 -0.24113800000000002 0.47051899999999997 255 125 0
-0.344327 -0.489687 0.26845 255 125 0
-0.40924499999999997 0.396162 -0.7572260000000001 255 125 0
-0.502887 -0.318533 0.13893 255 125 0
0.241535 0.598956 -0.708097 255 125 0
-0.53504 -0.09889500000000001 0.09096599999999999 255 125 0
-0.373584 0.235121 -0.049105 255 125 0
-0.037704 0.375762 0.085662 255 125 0
-0.035438 -0.630883 0.390633 255 125 0
-0.351152 -0.37247800000000003 0.318447 255 125 0
-0.384588 0.133947 0.145591 255 125 0
0.091336 0.38871500000000003 -0.604287 255 125 0
-0.05794 -0.037915 0.445218 255 125 0
0.23830900000000002 -0.211718 0.326751 255 125 0
0.195115 0.036766 0.359249 255 125 0
-0.37185300000000004 0.5906020000000001 -0.746869 255 125 0
-0.273858 -0.657144 0.236839 255 125 0
-0.50683 -0.100691 0.118806 255 125 0
-0.432101 0.46403900000000003 -0.792049 255 125 0
0.11421300000000001 0.018522 0.391474 255 125 0
0.193907 -0.520563 0.29386999999999996 255 125 0
0.57015 0.7484029999999999 -0.717557 255 125 0
0.07077699999999999 -0.100781 0.45963100000000007 255 125 0
-0.11036900000000001 0.6578649999999999 -0.668901 255 125 0
-0.51349 -0.085096 0.134914 255 125 0
0.004947 0.270437 0.26350100000000004 255 125 0
0.051927 0.493827 -0.596707 255 125 0
0.323389 -0.029358 0.179369 255 125 0
-0.558595 -0.23969899999999997 0.104999 255 125 0
-0.322445 0.519469 -0.6866359999999999 255 125 0
-0.042527999999999996 -0.514059 0.586481 255 125 0
-0.47761800000000004 -0.457658 0.11833699999999998 255 125 0
0.593079 0.635107 -0.763504 255 125 0
0.432443 -0.188865 0.076682 255 125 0
-0.366888 -0.494601 0.262301 255 125 0
-0.22964400000000001 -0.199546 0.430638 255 125 0
0.014546000000000002 -0.22091 0.48356800000000005 255 125 0
-0.034624 -0.562185 0.534281 255 125 0
0.08433500000000001 -0.6591199999999999 0.194947 255 125 0
0.31543499999999997 0.728332 -0.721913 255 125 0
0.028612000000000002 -0.307544 0.580357 255 125 0
-0.416487 -0.305102 0.257779 255 125 0
0.156387 0.009743 0.38886 255 125 0
-0.28481799999999996 -0.136264 0.436133 255 125 0
0.057402 0.076473 0.393676 255 125 0
-0.19622799999999999 -0.319817 0.601981 255 125 0
-0.227214 -0.44396499999999994 0.572646 255 125 0
0.632236 0.728871 -0.709723 255 125 0
-0.507328 0.303051 -0.796335 255 125 0
-0.42418500000000003 0.469484 -0.770834 255 125 0
0.28381999999999996 -0.078002 0.29325100000000004 255 125 0
0.204124 -0.219467 0.35801 255 125 0
-0.31098000000000003 -0.19380899999999998 0.394434 255 125 0
0.442083 -0.312712 -0.067875 255 125 0
-0.171051 0.109759 0.398461 255 125 0
0.09212200000000001 -0.420203 0.551809 255 125 0
0.287086 -0.12265899999999999 0.301748 255 125 0
0.70802 0.8571049999999999 -0.693481 255 125 0
-0.22733000000000003 0.6018479999999999 -0.639041 255 125 0
-0.558084 -0.15024400000000002 0.0294 255 125 0
-0.269463 0.362147 -0.591757 255 125 0
-0.35179099999999996 -0.173806 0.367791 255 125 0
-0.13533199999999998 0.399431 -0.543528 255 125 0
-0.215015 -0.292313 0.537646 255 125 0
-0.029949 -0.427487 0.612805 255 125 0
-0.133588 0.509426 -0.612681 255 125 0
-0.021226 0.014437 0.444065 255 125 0
0.014057 0.349502 0.15501800000000002 255 125 0
0.733113 0.811427 -0.68755 255 125 0
-0.374357 0.415654 -0.72964 255 125 0
0.233185 -0.019455 0.31148200000000004 255 125 0
-0.271289 -0.061049 0.40023400000000003 255 125 0
0.191063 0.715726 -0.194777 255 125 0
-0.464566 0.047291 0.097013 255 125 0
-0.151251 0.414709 -0.552393 255 125 0
-0.026398 -0.327495 0.6099399999999999 255 125 0
-0.350099 -0.408999 0.379407 255 125 0
-0.13278 0.172132 0.358352 255 125 0
-0.480188 -0.34678600000000004 0.14845 255 125 0
-0.32103000000000004 -0.298952 0.385784 255 125 0
0.12573800000000002 -0.05297999999999999 0.416421 255 125 0
0.450798 -0.334904 -0.183426 255 125 0
0.011463 0.012366 0.450449 255 125 0
0.157852 -0.27708 0.398483 255 125 0
-0.214333 0.6094149999999999 -0.617618 255 125 0
0.294863 0.103532 0.076418 255 125 0
0.254289 0.6981729999999999 -0.731075 255 125 0
-0.34436500000000003 0.097959 0.303129 255 125 0
0.286918 -0.571675 0.168214 255 125 0
0.21892199999999998 0.8144979999999999 -0.291723 255 125 0
0.026306 0.615294 -0.44168199999999996 255 125 0
0.35786100000000004 0.974865 -0.16975099999999999 255 125 0
0.18281 0.098447 0.349506 255 125 0
0.082461 -0.354692 0.526658 255 125 0
-0.473866 0.40956 -0.8342430000000001 255 125 0
0.059253 -0.042245 0.44249700000000003 255 125 0
-0.374881 -0.502149 0.234898 255 125 0
-0.5049060000000001 -0.592722 -0.175324 255 125 0
-0.269532 0.113621 0.313055 255 125 0
0.035365 0.46858999999999995 -0.589055 255 125 0
-0.388322 -0.022915 0.307911 255 125 0
-0.088543 -0.549317 0.5630149999999999 255 125 0
-0.019034 -0.257065 0.479764 255 125 0
-0.36304899999999996 0.03644 0.272397 255 125 0
0.126197 0.914876 -0.363718 255 125 0
-0.305699 0.48015 -0.6823600000000001 255 125 0
0.367787 -0.034893 0.08665199999999999 255 125 0
-0.340368 -0.49015 0.30768 255 125 0
0.136606 0.013680000000000001 0.410102 255 125 0
0.334818 -0.038104 0.187185 255 125 0
0.150047 -0.571125 0.24560500000000002 255 125 0
0.246943 0.615629 -0.7152310000000001 255 125 0
0.219023 -0.404331 0.35294899999999996 255 125 0
0.27410300000000004 -0.11692899999999999 0.30331199999999997 255 125 0
0.13405699999999998 -0.604759 0.20775100000000002 255 125 0
-0.256036 -0.48283100000000007 0.518895 255 125 0
0.24832800000000002 0.798903 -0.165549 255 125 0
0.34817 0.655321 -0.717722 255 125 0
-0.166658 0.380756 -0.550586 255 125 0
0.25150100000000003 -0.203798 0.330828 255 125 0
0.008431999999999999 0.13239800000000002 0.38021900000000003 255 125 0
-0.5262319999999999 -0.478288 -0.050682 255 125 0
0.377436 -0.198462 0.129174 255 125 0
0.22935 -0.441508 0.30846999999999997 255 125 0
0.139684 -0.138286 0.42215699999999995 255 125 0
0.421242 0.77561 -0.741496 255 125 0
0.39470700000000003 -0.399566 0.105261 255 125 0
-0.342067 0.086101 0.318184 255 125 0
-0.214378 -0.285808 0.44481000000000004 255 125 0
-0.477916 0.035989 -0.017896000000000002 255 125 0
-0.09034099999999999 0.31945500000000004 0.21108200000000002 255 125 0
0.241 -0.607218 0.188024 255 125 0
-0.415225 -0.256807 0.25058 255 125 0
-0.051655999999999994 0.6777890000000001 -0.5891 255 125 0
-0.10268699999999999 0.581916 -0.598882 255 125 0
0.125594 -0.153417 0.43671400000000005 255 125 0
-0.24050300000000002 0.556084 -0.636933 255 125 0
0.43237200000000003 -0.397919 0.01043 255 125 0
-0.264775 0.028529000000000002 0.377863 255 125 0
-0.053929 -0.18246300000000001 0.477792 255 125 0
0.466472 0.6561560000000001 -0.741665 255 125 0
-0.18866 0.518421 -0.614568 255 125 0
-0.17522000000000001 0.058410000000000004 0.412438 255 125 0
0.3422 -0.220192 0.218038 255 125 0
-0.434421 -0.015403 0.250129 255 125 0
0.662038 0.8445309999999999 -0.712861 255 125 0
0.557153 0.7340810000000001 -0.721252 255 125 0
0.08831900000000001 -0.147816 0.43853400000000003 255 125 0
0.659417 0.813284 -0.706982 255 125 0
-0.39816799999999997 -0.395499 0.274144 255 125 0
0.280538 -0.418376 0.285215 255 125 0
0.113597 -0.22272399999999998 0.449003 255 125 0
-0.516123 -0.22471100000000002 0.141849 255 125 0
0.145655 -0.075422 0.423175 255 125 0
-0.030875 0.528737 -0.586005 255 125 0
-0.394836 0.123727 0.02493 255 125 0
-0.491875 -0.012361 0.051716 255 125 0
-0.10762000000000001 0.372402 0.07183200000000001 255 125 0
0.104582 -0.30447399999999997 0.41106400000000004 255 125 0
-0.319125 0.582792 -0.676991 255 125 0
-0.199943 -0.164176 0.435417 255 125 0
0.15137799999999998 0.655745 -0.395291 255 125 0
-0.09177 -0.217286 0.46953599999999995 255 125 0
0.009594 0.617211 -0.446694 255 125 0
0.38004 0.646019 -0.721381 255 125 0
-0.41861800000000005 0.031129 0.257038 255 125 0
-0.458183 -0.578186 -0.058621000000000006 255 125 0
0.325799 -0.11043900000000001 0.214427 255 125 0
0.166533 0.598635 -0.695312 255 125 0
-0.150136 0.204052 0.330841 255 125 0
0.18266300000000002 0.72675 -0.18093099999999998 255 125 0
0.375573 -0.291161 0.13538699999999998 255 125 0
0.042791 0.445481 -0.589759 255 125 0
0.111524 -0.29565 0.428221 255 125 0
-0.367669 0.031794 0.29349000000000003 255 125 0
-0.018827 -0.398158 0.634053 255 125 0
0.074064 0.36444499999999996 -0.5998600000000001 255 125 0
0.040989 0.507323 -0.570185 255 125 0
0.42261899999999997 -0.430109 -0.014477 255 125 0
0.073254 0.052610000000000004 0.40541 255 125 0
-0.316443 -0.251656 0.37574 255 125 0
0.056098 0.312407 0.196899 255 125 0
0.039455000000000004 -0.37414400000000003 0.5900810000000001 255 125 0
0.222849 -0.371449 0.357752 255 125 0
0.17858 -0.382575 0.374257 255 125 0
0.177964 0.127683 0.305126 255 125 0
-0.039258999999999995 0.34891300000000003 0.15545499999999998 255 125 0
-0.57133 -0.07303899999999999 -0.093864 255 125 0
-0.022209 -0.546449 0.51452 255 125 0
-0.23371399999999998 0.092037 0.38459499999999996 255 125 0
-0.010315000000000001 0.7374470000000001 -0.5140680000000001 255 125 0
0.45425 0.826417 -0.760914 255 125 0
-0.335613 -0.6632979999999999 0.20360999999999999 255 125 0
0.054344 0.684034 -0.331275 255 125 0
0.07624299999999999 0.809027 -0.385255 255 125 0
0.161153 0.8826 -0.319617 255 125 0
0.592599 0.835199 -0.7244729999999999 255 125 0
0.588978 0.626211 -0.752891 255 125 0
0.39764099999999997 0.807763 -0.796549 255 125 0
-0.31111700000000003 -0.21663000000000002 0.39848 255 125 0
-0.491565 -0.045644 0.146798 255 125 0
-0.264999 0.398327 -0.607254 255 125 0
-0.31638099999999997 -0.6206689999999999 0.22989600000000002 255 125 0
-0.252842 0.21215599999999998 0.314816 255 125 0
-0.5639689999999999 -0.173982 -0.04585 255 125 0
-0.100998 0.364299 -0.5373720000000001 255 125 0
-0.118549 -0.248375 0.471858 255 125 0
-0.21561599999999997 0.072014 0.393998 255 125 0
0.383868 0.808026 -0.7966449999999999 255 125 0
0.413451 -0.032615 0.04589 255 125 0
0.41455600000000004 0.756396 -0.7430180000000001 255 125 0
-0.475655 -0.404109 0.197784 255 125 0
0.144047 0.525849 -0.704038 255 125 0
-0.465454 -0.453296 0.11075 255 125 0
0.345775 -0.554171 0.09615900000000001 255 125 0
-0.076027 0.6150439999999999 -0.612611 255 125 0
0.025314 0.7892640000000001 -0.442249 255 125 0
0.08596799999999999 0.8463139999999999 -0.39082 255 125 0
0.401171 -0.300705 0.13353199999999998 255 125 0
-0.28238800000000003 0.117826 0.343835 255 125 0
-0.5198229999999999 -0.43728100000000003 0.077972 255 125 0
0.128385 0.791642 -0.38659299999999996 255 125 0
-0.121885 -0.5996819999999999 0.423781 255 125 0
-0.125697 -0.482013 0.605209 255 125 0
-0.465605 -0.403102 0.152251 255 125 0
0.133354 -0.125382 0.445528 255 125 0
-0.276543 -0.23925900000000003 0.408648 255 125 0
0.023902 0.081861 0.42144799999999993 255 125 0
0.080624 -0.5434180000000001 0.46565500000000004 255 125 0
0.046182 0.585796 -0.45583 255 125 0
0.278395 0.089646 0.14277 255 125 0
-0.056867999999999995 0.595014 -0.5771189999999999 255 125 0
-0.495938 0.377459 -0.815092 255 125 0
-0.485533 0.371798 -0.799479 255 125 0
0.10968900000000001 0.112978 0.36909400000000003 255 125 0
-0.062188 0.339071 0.175335 255 125 0
0.028960000000000003 -0.424009 0.601924 255 125 0
-0.047106999999999996 0.458675 -0.5592779999999999 255 125 0
0.153783 0.7616470000000001 -0.29572600000000004 255 125 0
0.34491900000000003 -0.46383 0.223354 255 125 0
0.187697 0.22233499999999998 0.189115 255 125 0
0.17322200000000001 0.899308 -0.30746100000000004 255 125 0
0.306149 -0.117971 0.24040599999999998 255 125 0
0.206515 0.26621 0.075436 255 125 0
-0.017823 0.139925 0.389181 255 125 0
0.601626 0.810396 -0.714485 255 125 0
0.497946 0.833482 -0.778643 255 125 0
-0.10295 -0.429104 0.629989 255 125 0
-0.010671 -0.271841 0.5674170000000001 255 125 0
-0.308112 0.20463399999999998 0.225568 255 125 0
-0.103123 0.341435 0.184672 255 125 0
0.390158 -0.114994 0.132303 255 125 0
-0.043122 -0.457897 0.593535 255 125 0
-0.122432 0.004636 0.442851 255 125 0
0.073793 0.748811 -0.434906 255 125 0
-0.418206 -0.5473939999999999 0.170452 255 125 0
0.115997 0.176396 0.3087 255 125 0
-0.044549 0.48213999999999996 -0.5665020000000001 255 125 0
-0.22066799999999998 -0.565688 0.43994300000000003 255 125 0
0.28467800000000004 0.8429180000000001 -0.158788 255 125 0
-0.5440729999999999 -0.20414100000000002 0.069347 255 125 0
0.607427 0.7331529999999999 -0.736911 255 125 0
-0.287514 -0.198627 0.412966 255 125 0
0.696876 0.8604209999999999 -0.7168439999999999 255 125 0
-0.21621300000000002 0.167691 0.36396300000000004 255 125 0
0.22578499999999999 -0.526777 0.276345 255 125 0
0.383867 -0.085355 0.125966 255 125 0
0.08532000000000001 -0.48366899999999996 0.533597 255 125 0
0.5051640000000001 0.677797 -0.7092970000000001 255 125 0
0.078327 0.866318 -0.38734 255 125 0
0.092619 0.7200770000000001 -0.42662 255 125 0
0.009456 0.626117 -0.49976099999999996 255 125 0
0.027589999999999996 0.24979899999999997 0.275439 255 125 0
0.423543 -0.010015999999999999 -0.06035499999999999 255 125 0
-0.49015200000000003 -0.435522 0.108227 255 125 0
-0.300898 0.391388 -0.609939 255 125 0
-0.10893499999999999 -0.062147 0.48025100000000004 255 125 0
-0.21982600000000002 0.304845 0.219311 255 125 0
0.267264 0.6076010000000001 -0.71639 255 125 0
-0.293662 -0.17429 0.398015 255 125 0
-0.014759 0.24076399999999998 0.325587 255 125 0
-0.27231500000000003 0.45486499999999996 -0.63513 255 125 0
-0.127584 -0.389884 0.636402 255 125 0
-0.359561 0.46677799999999997 -0.739959 255 125 0
0.160393 -0.38805700000000004 0.36805 255 125 0
0.151166 -0.344996 0.391769 255 125 0
0.282982 -0.152285 0.304069 255 125 0
0.23466700000000001 0.837189 -0.262521 255 125 0
-0.280393 -0.15116500000000002 0.432101 255 125 0
0.37104000000000004 -0.078135 0.163742 255 125 0
0.344666 0.727989 -0.733704 255 125 0
0.22883499999999998 -0.172868 0.353892 255 125 0
-0.23981 0.249968 0.282006 255 125 0
-0.329406 -0.617599 0.223852 255 125 0
0.11458499999999999 -0.634901 0.20502399999999998 255 125 0
0.23470500000000002 0.617149 -0.724007 255 125 0
0.12270199999999999 0.137107 0.344346 255 125 0
0.05482000000000001 -0.622825 0.404584 255 125 0
-0.28533600000000003 -0.380627 0.396982 255 125 0
-0.168663 -0.17549800000000002 0.486734 255 125 0
0.410462 0.794872 -0.764426 255 125 0
0.394813 0.565403 -0.759 255 125 0
0.439429 -0.41392799999999996 -0.085957 255 125 0
0.314872 -0.187107 0.26702 255 125 0
-0.170156 0.277088 0.20792399999999997 255 125 0
-0.289719 -0.06523 0.420637 255 125 0
0.184298 0.898488 -0.27316 255 125 0
-0.076413 -0.039652999999999994 0.454845 255 125 0
-0.017081 0.297175 0.253052 255 125 0
0.167132 -0.050227999999999995 0.41417299999999996 255 125 0
-0.170837 -0.45440699999999995 0.5926359999999999 255 125 0
0.372696 -0.516055 0.064623 255 125 0
0.203561 -0.17990799999999998 0.38860500000000003 255 125 0
0.045001 -0.11586500000000001 0.43925200000000003 255 125 0
0.34730900000000003 -0.254949 0.24674899999999997 255 125 0
-0.23803200000000002 0.524233 -0.600884 255 125 0
0.11048 0.376089 -0.6426229999999999 255 125 0
-0.24263600000000002 -0.44668100000000005 0.558922 255 125 0
0.039367 0.685291 -0.386013 255 125 0
-0.35096 0.10901199999999998 0.254253 255 125 0
-0.259908 0.151784 0.354932 255 125 0
-0.422521 -0.237301 0.26394 255 125 0
-0.001485 -0.35335500000000003 0.630827 255 125 0
-0.049354 0.16835899999999998 0.376562 255 125 0
0.17590899999999998 0.645436 -0.36751500000000004 255 125 0
-0.190209 0.400723 -0.5490189999999999 255 125 0
0.30683299999999997 0.8345040000000001 -0.15246300000000002 255 125 0
-0.25566300000000003 0.152007 0.32448 255 125 0
0.156005 -0.540679 0.258331 255 125 0
0.236477 0.008054 0.324017 255 125 0
-0.207179 -0.127382 0.460451 255 125 0
-0.13001500000000002 0.154083 0.38963400000000004 255 125 0
-0.32618400000000003 0.154949 0.23189 255 125 0
0.348027 -0.27966399999999997 0.209959 255 125 0
0.18115499999999998 0.8597610000000001 -0.306786 255 125 0
-0.463898 0.222068 -0.77167 255 125 0
0.32265 -0.08760599999999999 0.222007 255 125 0
0.313393 0.798192 -0.132177 255 125 0
0.258384 0.668281 -0.704512 255 125 0
0.100633 0.15148599999999998 0.33439800000000003 255 125 0
0.23359699999999997 -0.593683 0.209162 255 125 0
0.058170000000000006 -0.47221199999999997 0.565106 255 125 0
-0.525087 -0.404418 0.044633 255 125 0
0.35547399999999996 0.929358 -0.153975 255 125 0
0.054437 -0.116674 0.45761499999999994 255 125 0
0.36904699999999996 0.83452 -0.13388699999999998 255 125 0
-0.064934 -0.6079600000000001 0.501704 255 125 0
0.033624 0.690721 -0.45222299999999993 255 125 0
0.20744 0.8971120000000001 -0.279515 255 125 0
-0.168235 -0.582571 0.458408 255 125 0
-0.389277 -0.414463 0.31858000000000003 255 125 0
0.175036 0.731016 -0.199613 255 125 0
-0.389198 0.516096 -0.7488060000000001 255 125 0
0.512212 0.640195 -0.757624 255 125 0
0.227248 0.20844899999999997 0.185757 255 125 0
0.33871599999999996 -0.0011710000000000002 0.11930999999999999 255 125 0
0.11366300000000001 -0.57853 0.39910300000000004 255 125 0
-0.17160799999999998 -0.361813 0.589809 255 125 0
-0.126622 0.310227 0.211022 255 125 0
0.171 -0.387536 0.360802 255 125 0
0.023568000000000002 -0.49336 0.5888770000000001 255 125 0
-0.313801 -0.044986 0.366016 255 125 0
0.005736 -0.130617 0.469145 255 125 0
0.284016 0.9256030000000001 -0.172401 255 125 0
-0.004325 0.487962 -0.582554 255 125 0
-0.0024850000000000002 -0.609855 0.44429700000000005 255 125 0
-0.154452 -0.10383699999999998 0.46856099999999995 255 125 0
-0.246836 -0.154712 0.441271 255 125 0
-0.056425 -0.119502 0.471675 255 125 0
0.44637899999999997 0.679181 -0.713216 255 125 0
-0.125919 0.424497 -0.572843 255 125 0
0.27737 0.830189 -0.14399 255 125 0
-0.485426 0.42705299999999996 -0.82357 255 125 0
0.489824 0.619372 -0.7501770000000001 255 125 0
0.408461 -0.505724 -0.051221 255 125 0
0.03013 0.534986 -0.534853 255 125 0
-0.040889 0.315336 0.238591 255 125 0
-0.038291000000000006 0.217773 0.333541 255 125 0
0.05934 -0.494021 0.5533779999999999 255 125 0
0.078794 0.197456 0.315229 255 125 0
-0.070822 -0.43728900000000004 0.6217199999999999 255 125 0
-0.422009 0.012103000000000001 0.228512 255 125 0
-0.248757 0.10512200000000001 0.377337 255 125 0
0.341525 0.690613 -0.7005399999999999 255 125 0
-0.34731999999999996 -0.250958 0.357051 255 125 0
-0.11717999999999999 0.49283000000000005 -0.603808 255 125 0
-0.217627 0.052122 0.398945 255 125 0
0.577146 0.6459060000000001 -0.7787689999999999 255 125 0
-0.29132399999999997 -0.159736 0.41736899999999993 255 125 0
0.14816300000000002 -0.41487399999999997 0.383667 255 125 0
-0.234192 0.212731 0.331113 255 125 0
-0.026794 0.343858 0.151813 255 125 0
-0.027282999999999998 0.682606 -0.537339 255 125 0
0.032292 0.465846 -0.5858939999999999 255 125 0
-0.363363 0.087019 0.270621 255 125 0
-0.52549 -0.23851 0.135884 255 125 0
-0.412837 0.174706 -0.768419 255 125 0
-0.098091 -0.143171 0.49712700000000004 255 125 0
-0.460712 -0.332413 0.197848 255 125 0
-0.41727200000000003 -0.391881 0.270464 255 125 0
-0.220594 -0.324673 0.5720109999999999 255 125 0
0.6321829999999999 0.906302 -0.763382 255 125 0
0.232992 0.6636920000000001 -0.715534 255 125 0
0.155641 0.5034930000000001 -0.731571 255 125 0
0.29291100000000003 0.069728 0.172441 255 125 0
-0.055805999999999994 0.201381 0.329545 255 125 0
-0.33319299999999996 -0.182576 0.378076 255 125 0
0.199746 -0.449808 0.326319 255 125 0
-0.202598 0.434558 -0.578846 255 125 0
0.433542 -0.22200100000000003 -0.004436 255 125 0
-0.185892 -0.279987 0.572767 255 125 0
0.270529 -0.097888 0.330005 255 125 0
-0.418625 0.399054 -0.767918 255 125 0
-0.40921199999999996 -0.34839499999999995 0.29089699999999996 255 125 0
-0.165969 -0.545379 0.536845 255 125 0
0.013684 0.383255 -0.545007 255 125 0
-0.075579 -0.10142799999999999 0.46048999999999995 255 125 0
-0.45764799999999994 -0.30823 0.216218 255 125 0
-0.010328 -0.26308200000000004 0.591698 255 125 0
0.30651300000000004 0.732399 -0.756029 255 125 0
-0.315085 0.463294 -0.7064590000000001 255 125 0
0.47681999999999997 -0.133476 -0.164175 255 125 0
-0.555933 -0.21048200000000003 -0.013829 255 125 0
-0.090074 0.598759 -0.5959300000000001 255 125 0
-0.42057700000000003 -0.037419 0.29043 255 125 0
-0.002144 -0.57587 0.522455 255 125 0
-0.392459 0.480362 -0.750061 255 125 0
0.39208200000000004 0.939306 -0.152338 255 125 0
-0.132215 -0.09448200000000001 0.444434 255 125 0
-0.5155069999999999 -0.020855000000000002 0.110007 255 125 0
-0.05909400000000001 -0.124827 0.47252299999999997 255 125 0
-0.21112199999999998 -0.415246 0.590878 255 125 0
-0.199262 0.45484399999999997 -0.5829529999999999 255 125 0
-0.32610500000000003 0.248221 0.15568800000000002 255 125 0
-0.21803699999999998 -0.043305 0.41918599999999995 255 125 0
-0.000743 -0.513678 0.572508 255 125 0
-0.21971500000000002 0.12192 0.373675 255 125 0
-0.285654 -0.091542 0.43634700000000004 255 125 0
-0.330158 -0.38791 0.36032800000000004 255 125 0
-0.240662 0.5378 -0.643891 255 125 0
-0.267888 -0.324872 0.404597 255 125 0
0.091037 0.08805 0.404979 255 125 0
0.183917 0.538644 -0.71236 255 125 0
-0.23834899999999998 0.274355 0.241011 255 125 0
0.39520500000000003 -0.141593 0.11373599999999999 255 125 0
-0.27160700000000004 0.119315 0.34735900000000003 255 125 0
-0.191544 0.136166 0.386653 255 125 0
-0.091441 0.448341 -0.5615439999999999 255 125 0
-0.112044 -0.0616 0.467236 255 125 0
0.483912 0.6420939999999999 -0.7453029999999999 255 125 0
0.015469 0.311749 0.200924 255 125 0
-0.505847 0.02642 0.029679 255 125 0
0.190321 0.80882 -0.29619 255 125 0
-0.000248 -0.281026 0.551412 255 125 0
0.346047 -0.15397 0.19179000000000002 255 125 0
0.198459 0.034624 0.333375 255 125 0
0.31638499999999997 -0.354271 0.23813600000000001 255 125 0
-0.15043499999999999 0.536297 -0.632375 255 125 0
0.25606599999999996 0.11956900000000001 0.10508499999999998 255 125 0
0.224037 0.8803979999999999 -0.27425700000000003 255 125 0
-0.5273329999999999 -0.30580100000000005 0.12260599999999999 255 125 0
-0.16255899999999998 0.213864 0.317695 255 125 0
-0.108048 0.10284700000000001 0.396484 255 125 0
0.296442 -0.40219299999999997 0.270793 255 125 0
-0.06577999999999999 0.38253400000000004 0.084003 255 125 0
-0.305388 -0.123228 0.378889 255 125 0
-0.13101 -0.44568800000000003 0.613334 255 125 0
-0.002065 0.384546 -0.550009 255 125 0
-0.275509 0.271858 0.179815 255 125 0
-0.23755 0.56535 -0.640396 255 125 0
0.088559 0.288154 0.186341 255 125 0
-0.251712 0.23425900000000002 0.265493 255 125 0
-0.513149 -0.24890199999999998 0.113809 255 125 0
-0.29704899999999995 -0.293068 0.42193800000000004 255 125 0
0.330202 1.0015040000000002 -0.201151 255 125 0
-0.052583000000000005 -0.111338 0.47093999999999997 255 125 0
0.129504 0.47908500000000004 -0.750546 255 125 0
-0.192942 -0.6246430000000001 0.373148 255 125 0
0.039387 0.633894 -0.406139 255 125 0
0.330217 -0.355543 0.23351999999999998 255 125 0
-0.13718 -0.46666899999999994 0.624962 255 125 0
-0.171565 0.447396 -0.576112 255 125 0
0.310098 -0.424227 0.24755500000000003 255 125 0
-0.152673 -0.139674 0.462132 255 125 0
0.501059 0.7696149999999999 -0.722618 255 125 0
0.18707000000000001 0.669261 -0.721162 255 125 0
-0.059066999999999995 0.135426 0.397541 255 125 0
0.054035 0.693044 -0.295607 255 125 0
0.16996 0.762212 -0.266851 255 125 0
-0.063513 -0.208744 0.48322 255 125 0
0.258809 0.14161700000000002 0.09704600000000001 255 125 0
0.193194 -0.480313 0.3141 255 125 0
-0.220333 0.310277 0.20525700000000002 255 125 0
0.122057 -0.287981 0.437766 255 125 0
-0.25303000000000003 -0.489947 0.542867 255 125 0
-0.11202000000000001 -0.404463 0.6208060000000001 255 125 0
-0.40094 -0.239986 0.311627 255 125 0
-0.297716 0.48396999999999996 -0.677114 255 125 0
0.226535 -0.429853 0.30183699999999997 255 125 0
0.649986 0.848468 -0.7023229999999999 255 125 0
0.306824 0.925919 -0.18833699999999998 255 125 0
-0.44772399999999996 -0.204015 0.265895 255 125 0
-0.506641 0.243137 -0.775734 255 125 0
-0.471429 -0.197076 0.20624800000000001 255 125 0
-0.361962 -0.612038 0.23299899999999998 255 125 0
0.203262 -0.262385 0.38059499999999996 255 125 0
-0.031516 0.33523000000000003 0.181444 255 125 0
0.095151 -0.392742 0.518929 255 125 0
0.372342 0.687685 -0.708847 255 125 0
-0.133846 -0.207249 0.4853 255 125 0
-0.14628 0.485205 -0.6112270000000001 255 125 0
-0.224946 -0.603835 0.397505 255 125 0
0.615425 0.766505 -0.7324229999999999 255 125 0
-0.37507399999999996 -0.5542279999999999 0.25901 255 125 0
-0.42809200000000003 -0.170203 0.275571 255 125 0
-0.36840100000000003 -0.365199 0.343034 255 125 0
0.270947 0.13261900000000001 0.036954 255 125 0
0.032629000000000005 0.293523 0.23239400000000002 255 125 0
-0.029675 0.740042 -0.500184 255 125 0
-0.342188 -0.27369 0.357007 255 125 0
-0.20671799999999999 -0.27117199999999997 0.430225 255 125 0
-0.228231 0.356217 -0.5677180000000001 255 125 0
0.47119700000000003 -0.24869899999999998 -0.10684300000000001 255 125 0
0.113801 0.44406999999999996 -0.661447 255 125 0
0.29464 -0.137982 0.279613 255 125 0
-0.203689 -0.465225 0.584758 255 125 0
-0.524725 -0.203515 0.126028 255 125 0
0.083454 0.69225 -0.26814499999999997 255 125 0
0.342163 0.625487 -0.735916 255 125 0
0.18653499999999998 0.896942 -0.317443 255 125 0
0.0081 -0.376527 0.6095649999999999 255 125 0
0.125591 0.739849 -0.217074 255 125 0
0.075653 -0.037523 0.4348 255 125 0
-0.304975 0.0052640000000000004 0.384973 255 125 0
-0.11268 0.278671 0.26495100000000005 255 125 0
-0.465366 -0.101371 0.244639 255 125 0
-0.040373 -0.135892 0.470232 255 125 0
-0.009264 0.12741 0.37294499999999997 255 125 0
0.115638 0.391685 -0.649014 255 125 0
0.016228 0.068093 0.415338 255 125 0
-0.315695 0.049786000000000004 0.343801 255 125 0
0.199942 -0.317217 0.372769 255 125 0
-0.245846 -0.128833 0.42611899999999997 255 125 0
-0.210184 -0.281238 0.447132 255 125 0
0.050064 0.48543400000000003 -0.613525 255 125 0
-0.050558 0.435317 -0.553578 255 125 0
0.20843899999999999 -0.459657 0.300158 255 125 0
0.125753 0.7336 -0.232215 255 125 0
0.052292 0.75005 -0.446266 255 125 0
-0.137381 0.476264 -0.5807260000000001 255 125 0
0.23961 -0.101272 0.350454 255 125 0
-0.087648 0.32810500000000004 0.141494 255 125 0
-0.429947 -0.042857 0.271316 255 125 0
-0.429968 -0.520383 0.12039100000000001 255 125 0
0.48490900000000003 0.681091 -0.710939 255 125 0
-0.291504 -0.298027 0.403325 255 125 0
-0.434692 0.401791 -0.770138 255 125 0
-0.005792 0.149584 0.373327 255 125 0
-0.030986 0.491721 -0.571531 255 125 0
0.335947 0.770423 -0.7418680000000001 255 125 0
-0.112532 -0.571009 0.509354 255 125 0
-0.41092700000000004 0.26263800000000004 -0.697925 255 125 0
-0.105402 0.22588699999999998 0.305224 255 125 0
0.253917 -0.319191 0.330404 255 125 0
-0.11808099999999999 0.521092 -0.6068140000000001 255 125 0
0.315085 0.836419 -0.145527 255 125 0
0.036956 0.511204 -0.576868 255 125 0
-0.28571199999999997 0.36994099999999996 -0.5740770000000001 255 125 0
-0.17418599999999998 0.5525329999999999 -0.600805 255 125 0
-0.379508 -0.536515 0.216811 255 125 0
-0.406003 0.011132 0.268788 255 125 0
0.699786 0.886001 -0.692467 255 125 0
0.22531500000000002 -0.069478 0.355098 255 125 0
-0.514217 0.276957 -0.781959 255 125 0
-0.16728099999999999 0.141898 0.36845300000000003 255 125 0
-0.223509 -0.195323 0.43918100000000004 255 125 0
0.108705 0.815081 -0.39631900000000003 255 125 0
0.265679 -0.45204700000000003 0.285222 255 125 0
0.096791 0.257814 0.270131 255 125 0
-0.153951 0.24215100000000003 0.305686 255 125 0
-0.13484100000000002 0.437829 -0.546783 255 125 0
0.22226300000000002 0.041425 0.329494 255 125 0
0.210358 0.11073599999999999 0.293423 255 125 0
0.22776799999999997 0.583183 -0.740754 255 125 0
0.332912 0.653571 -0.700203 255 125 0
0.311663 0.621966 -0.696785 255 125 0
-0.42244 -0.24875300000000003 0.293191 255 125 0
0.073184 -0.17438599999999999 0.452791 255 125 0
0.045755000000000004 -0.30145500000000003 0.43679799999999996 255 125 0
0.565275 0.643227 -0.745287 255 125 0
-0.509834 0.31417 -0.809882 255 125 0
0.170576 0.289515 0.088215 255 125 0
-0.120581 0.22265700000000002 0.309324 255 125 0
-0.087631 0.210943 0.32978 255 125 0
0.35291500000000003 0.7482989999999999 -0.737103 255 125 0
0.040582 0.48790900000000004 -0.577803 255 125 0
0.036572 0.092638 0.415126 255 125 0
0.589711 0.776091 -0.718404 255 125 0
0.027971 -0.14591800000000002 0.43959499999999996 255 125 0
0.182253 -0.376971 0.378153 255 125 0
0.061525 0.50972 -0.628332 255 125 0
-0.09323300000000001 -0.33374699999999996 0.615455 255 125 0
0.35007699999999997 0.556675 -0.745055 255 125 0
0.023651 -0.039699 0.461162 255 125 0
0.09840499999999999 -0.107402 0.447525 255 125 0
0.083578 0.38716300000000003 -0.587328 255 125 0
-0.324617 0.17305 0.25287 255 125 0
-0.35675 0.5403359999999999 -0.695893 255 125 0
0.039057 -0.27975 0.43785100000000005 255 125 0
-0.211351 0.477282 -0.632214 255 125 0
0.259 0.124804 0.142627 255 125 0
-0.132394 -0.36797199999999997 0.627618 255 125 0
0.502899 0.600586 -0.7649729999999999 255 125 0
-0.023894 -0.022115 0.45414899999999997 255 125 0
0.391339 -0.059298000000000003 0.081134 255 125 0
-0.274019 0.466363 -0.6535 255 125 0
-0.278144 -0.282033 0.42199200000000003 255 125 0
-0.406066 0.176291 0.033874 255 125 0
-0.24445799999999998 -0.392019 0.555064 255 125 0
-0.39265900000000004 0.559998 -0.7770779999999999 255 125 0
-0.046245999999999995 -0.099508 0.47422200000000003 255 125 0
0.286665 0.7175189999999999 -0.727414 255 125 0
-0.11698299999999999 0.053439999999999994 0.420038 255 125 0
-0.201048 -0.015113999999999999 0.451438 255 125 0
0.736483 0.845951 -0.7032069999999999 255 125 0
-0.414682 -0.313552 0.286661 255 125 0
0.096697 0.46020500000000003 -0.6324270000000001 255 125 0
0.012437 0.031885000000000004 0.44191499999999995 255 125 0
-0.434254 0.0030600000000000002 0.229283 255 125 0
-0.02453 -0.088978 0.463192 255 125 0
0.14391099999999998 0.525457 -0.7306819999999999 255 125 0
-0.406116 0.30374 -0.70124 255 125 0
0.355227 -0.666267 -0.224462 255 125 0
-0.334769 -0.144674 0.380643 255 125 0
-0.269379 0.245901 0.243523 255 125 0
0.379002 -0.332941 0.123071 255 125 0
-0.244391 -0.016895 0.408733 255 125 0
0.20627399999999999 0.59386 -0.7258180000000001 255 125 0
-0.456217 0.234294 -0.737401 255 125 0
0.056764 0.06975 0.43145500000000003 255 125 0
-0.20939699999999997 -0.011217 0.444485 255 125 0
0.144919 0.7291770000000001 -0.20990100000000003 255 125 0
-0.280798 -0.436587 0.502494 255 125 0
0.12464700000000001 -0.655613 0.20189000000000001 255 125 0
-0.089238 0.055529999999999996 0.42330500000000004 255 125 0
-0.19409500000000002 -0.11755499999999999 0.44114799999999993 255 125 0
-0.344777 -0.615456 0.251418 255 125 0
0.275227 -0.60548 0.152567 255 125 0
-0.324936 -0.060764 0.393665 255 125 0
-0.160822 -0.243716 0.562172 255 125 0
0.303187 -0.18969 0.244365 255 125 0
-0.457147 -0.339395 0.234136 255 125 0
0.040545 0.5678810000000001 -0.514282 255 125 0
0.12781199999999998 -0.399389 0.39876300000000003 255 125 0
0.26821500000000004 -0.38710700000000003 0.302425 255 125 0
-0.455157 -0.19726400000000002 0.265727 255 125 0
0.305867 -0.107172 0.24995100000000003 255 125 0
0.347416 -0.59097 -0.21890700000000002 255 125 0
0.29344000000000003 0.555761 -0.741692 255 125 0
-0.30959200000000003 0.243098 0.126675 255 125 0
-0.041916 0.005365999999999999 0.45518100000000006 255 125 0
0.43225399999999997 0.700897 -0.719321 255 125 0
-0.452218 -0.636184 -0.076737 255 125 0
-0.024211 -0.24945599999999998 0.573883 255 125 0
0.32538 0.07624700000000001 -0.09871 255 125 0
0.054265 0.671779 -0.358763 255 125 0
0.379756 -0.472563 0.056157000000000006 255 125 0
0.06298 0.18641300000000002 0.34934299999999996 255 125 0
0.015159 -0.12429200000000001 0.47597399999999995 255 125 0
0.226258 0.777352 -0.16286199999999998 255 125 0
-0.144405 0.024938 0.42112799999999995 255 125 0
-0.144244 0.066139 0.413736 255 125 0
-0.308589 0.517547 -0.674254 255 125 0
-0.4496 0.034941 0.193916 255 125 0
0.20224 0.9371780000000001 -0.27864 255 125 0
0.342152 -0.381654 0.21634299999999998 255 125 0
-0.138903 -0.641687 0.38096199999999997 255 125 0
-0.21179699999999999 0.080902 0.392598 255 125 0
0.240135 0.06568099999999999 0.269744 255 125 0
0.258907 0.708286 -0.7456729999999999 255 125 0
0.370594 0.730479 -0.7318600000000001 255 125 0
0.24771300000000002 -0.11250299999999999 0.354451 255 125 0
-0.247257 -0.160331 0.4515 255 125 0
0.08307200000000001 0.389954 -0.5824020000000001 255 125 0
-0.25653200000000004 0.060948 0.35368499999999997 255 125 0
-0.36732600000000004 0.33363699999999996 -0.629767 255 125 0
-0.507911 -0.582897 -0.20138499999999998 255 125 0
0.214883 0.578447 -0.723172 255 125 0
0.682425 0.705701 -0.721672 255 125 0
-0.477162 -0.192366 0.221877 255 125 0
0.152346 0.5931069999999999 -0.710807 255 125 0
0.5742430000000001 0.8779950000000001 -0.762239 255 125 0
-0.37557199999999996 0.534146 -0.733812 255 125 0
0.071122 0.811016 -0.405375 255 125 0
0.6696840000000001 0.8234670000000001 -0.707047 255 125 0
-0.337305 0.508462 -0.699608 255 125 0
0.216302 0.263726 0.080796 255 125 0
0.008181 -0.464484 0.611176 255 125 0
0.285069 -0.659112 0.135454 255 125 0
0.41260699999999995 -0.388782 0.019428 255 125 0
-0.36756300000000003 -0.133244 0.357337 255 125 0
0.162863 0.5575100000000001 -0.710496 255 125 0
-0.228175 -0.066946 0.445662 255 125 0
0.357142 -0.142766 0.194138 255 125 0
-0.15315399999999998 0.543138 -0.592002 255 125 0
-0.113197 0.409925 -0.546473 255 125 0
0.147897 0.6574 -0.316338 255 125 0
0.119189 0.6719149999999999 -0.28244400000000003 255 125 0
0.299105 -0.192678 0.322971 255 125 0
-0.46236499999999997 -0.318633 0.235 255 125 0
-0.15320799999999998 0.6427069999999999 -0.632853 255 125 0
0.12828900000000001 -0.41766400000000004 0.38461100000000004 255 125 0
0.022706999999999998 0.706256 -0.48465 255 125 0
0.150563 -0.065171 0.41690200000000005 255 125 0
-0.368615 0.48516400000000004 -0.731246 255 125 0
0.351414 -0.512224 0.08467100000000001 255 125 0
-0.470355 -0.246204 0.220498 255 125 0
0.367772 -0.5129729999999999 0.07727200000000001 255 125 0
-0.12476 -0.5020560000000001 0.58954 255 125 0
-0.134595 0.563443 -0.599734 255 125 0
0.456794 0.7773140000000001 -0.737781 255 125 0
-0.16004000000000002 -0.30336799999999997 0.621264 255 125 0
-0.008473 0.155358 0.36228499999999997 255 125 0
0.672026 0.740084 -0.717666 255 125 0
-0.5202439999999999 0.26121700000000003 -0.795928 255 125 0
-0.5348390000000001 -0.358835 0.086844 255 125 0
0.156817 0.06727899999999999 0.3757 255 125 0
-0.089542 -0.24924699999999997 0.559575 255 125 0
-0.028768000000000002 0.18002200000000002 0.378117 255 125 0
-0.084031 0.093716 0.402127 255 125 0
0.6333810000000001 0.728989 -0.714655 255 125 0
0.187788 -0.5671470000000001 0.245421 255 125 0
0.20106400000000002 0.660566 -0.74642 255 125 0
0.37935599999999997 -0.25150700000000004 0.16333 255 125 0
-0.297915 0.422818 -0.6128319999999999 255 125 0
0.6397649999999999 0.825951 -0.728128 255 125 0
0.17036099999999998 -0.595985 0.210495 255 125 0
-0.331335 -0.409893 0.361844 255 125 0
0.649563 0.821261 -0.708765 255 125 0
0.060762000000000004 -0.244054 0.44716999999999996 255 125 0
0.167247 -0.058859 0.38810300000000003 255 125 0
-0.47114799999999996 0.312806 -0.752027 255 125 0
-0.41091300000000003 0.255999 -0.7174229999999999 255 125 0
0.22259299999999999 0.615909 -0.704148 255 125 0
-0.034945 0.48460699999999995 -0.571329 255 125 0
-0.198909 0.389417 -0.546296 255 125 0
-0.45756899999999995 -0.475851 0.098262 255 125 0
0.29241100000000003 -0.64931 0.10763299999999999 255 125 0
0.143377 -0.42656000000000005 0.35697199999999996 255 125 0
-0.040905000000000004 0.369861 0.084082 255 125 0
-0.514653 -0.078019 0.12406500000000001 255 125 0
0.61046 0.618363 -0.757959 255 125 0
-0.38509899999999997 -0.360161 0.294772 255 125 0
0.271606 -0.022119 0.313118 255 125 0
-0.295254 -0.015451 0.41638100000000006 255 125 0
0.087009 0.11008399999999999 0.386221 255 125 0
0.319893 0.09174600000000001 -0.084793 255 125 0
0.086506 -0.27977399999999997 0.426267 255 125 0
-0.21855100000000002 0.10004199999999999 0.386864 255 125 0
0.407484 -0.090553 0.04343 255 125 0
0.173771 0.594379 -0.713598 255 125 0
-0.196076 -0.185421 0.47730200000000006 255 125 0
0.084383 -0.027372000000000004 0.43828100000000003 255 125 0
0.157674 0.811688 -0.334038 255 125 0
-0.22318000000000002 0.411146 -0.558812 255 125 0
-0.26368600000000003 -0.351968 0.528489 255 125 0
-0.464366 0.399377 -0.777688 255 125 0
-0.308225 -0.16512000000000002 0.424696 255 125 0
-0.048081 0.6463270000000001 -0.6190979999999999 255 125 0
-0.45287700000000003 -0.272617 0.23424299999999998 255 125 0
-0.504864 -0.6165149999999999 -0.21510300000000002 255 125 0
-0.471688 0.201549 -0.787693 255 125 0
0.386338 -0.345724 0.150007 255 125 0
0.07631399999999999 -0.141146 0.46003 255 125 0
0.44771099999999997 -0.145998 -0.06958500000000001 255 125 0
0.150542 -0.165442 0.403575 255 125 0
0.42822299999999996 0.77581 -0.72968 255 125 0
-0.08255499999999999 -0.08216699999999999 0.454142 255 125 0
-0.196102 0.24414 0.308122 255 125 0
-0.05839199999999999 0.47946000000000005 -0.57955 255 125 0
-0.290108 -0.303044 0.396789 255 125 0
-0.051737 0.20134200000000002 0.333038 255 125 0
0.255024 0.773831 -0.150539 255 125 0
0.252375 0.199451 0.022668 255 125 0
-0.155408 0.372654 0.089973 255 125 0
0.09639500000000001 0.33876999999999996 0.124474 255 125 0
0.291143 0.770667 -0.145156 255 125 0
-0.173947 0.182952 0.34481799999999996 255 125 0
0.307271 -0.63563 0.126324 255 125 0
0.210853 0.896467 -0.274064 255 125 0
0.242075 -0.31199699999999997 0.328422 255 125 0
0.169729 -0.16367400000000001 0.435849 255 125 0
0.183373 0.5878329999999999 -0.726467 255 125 0
0.114488 -0.5092369999999999 0.44164499999999995 255 125 0
-0.420264 -0.420112 0.217088 255 125 0
-0.362644 0.448715 -0.73936 255 125 0
0.30124 -0.629997 0.11779500000000001 255 125 0
-0.138404 0.216491 0.335992 255 125 0
-0.319434 0.471666 -0.662651 255 125 0
0.114551 -0.415601 0.371606 255 125 0
0.043542000000000004 0.255295 0.254488 255 125 0
-0.49427600000000005 -0.213921 0.18676199999999998 255 125 0
-0.154281 -0.022789 0.43895200000000006 255 125 0
-0.27479699999999996 0.454697 -0.62921 255 125 0
-0.27805100000000005 -0.009470999999999999 0.41423999999999994 255 125 0
-0.079526 -0.465995 0.6010979999999999 255 125 0
0.15592999999999999 -0.328814 0.385151 255 125 0
-0.45957 0.40081300000000003 -0.781135 255 125 0
0.279206 -0.030429 0.281061 255 125 0
-0.329509 -0.009386 0.368324 255 125 0
-0.352952 -0.13779 0.34263899999999997 255 125 0
-0.140261 -0.339312 0.624175 255 125 0
0.506548 0.7673180000000001 -0.74037 255 125 0
-0.10718499999999999 -0.37638 0.620121 255 125 0
-0.263212 -0.10128200000000001 0.41915 255 125 0
-0.132743 0.180214 0.347775 255 125 0
0.35672800000000005 -0.382999 0.192079 255 125 0
0.035345 0.387291 -0.548021 255 125 0
0.121306 0.6628310000000001 -0.25751 255 125 0
-0.376893 -0.147975 0.358526 255 125 0
0.32953899999999997 0.6955 -0.713007 255 125 0
0.006962 -0.185249 0.486537 255 125 0
-0.124821 0.20619400000000002 0.33505300000000005 255 125 0
-0.039037 -0.476595 0.6024189999999999 255 125 0
-0.260681 -0.372568 0.555297 255 125 0
-0.030762 0.352287 0.159411 255 125 0
-0.442884 -0.204709 0.277227 255 125 0
-0.23500100000000002 0.025265 0.41269700000000004 255 125 0
0.104148 0.418558 -0.687919 255 125 0
0.188753 0.833368 -0.318037 255 125 0
-0.478315 -0.512081 0.040159 255 125 0
0.309589 -0.368831 0.252889 255 125 0
-0.386493 -0.5411630000000001 0.190718 255 125 0
-0.065 -0.040905000000000004 0.47460600000000003 255 125 0
-0.129571 -0.226122 0.484967 255 125 0
0.5942149999999999 0.63943 -0.757462 255 125 0
-0.040369 0.665676 -0.5342939999999999 255 125 0
0.28786100000000003 0.7427229999999999 -0.138434 255 125 0
0.040796 -0.368737 0.576382 255 125 0
-0.20125 -0.09289800000000001 0.446038 255 125 0
0.0476 -0.294837 0.44814 255 125 0
-0.275198 -0.03547 0.418651 255 125 0
0.207934 0.533343 -0.713808 255 125 0
0.091034 0.33024499999999996 0.063848 255 125 0
0.027319 0.15423599999999998 0.352274 255 125 0
0.303602 -0.09595 0.264413 255 125 0
-0.283704 -0.12703 0.42871499999999996 255 125 0
-0.21388000000000001 0.362268 -0.543337 255 125 0
0.15379600000000002 -0.131409 0.41891000000000006 255 125 0
-0.11149 0.017454 0.43339700000000003 255 125 0
0.108579 -0.46335299999999996 0.526416 255 125 0
-0.028643000000000002 -0.37354899999999996 0.624143 255 125 0
-0.449325 -0.061625 0.250879 255 125 0
-0.13880499999999998 0.44097 -0.564412 255 125 0
-0.284073 -0.536748 0.43465600000000004 255 125 0
0.036026 0.416678 -0.54906 255 125 0
-0.404577 -0.405051 0.270999 255 125 0
0.065093 -0.52678 0.499942 255 125 0
0.438733 0.583102 -0.747545 255 125 0
0.708617 0.8680459999999999 -0.705537 255 125 0
0.257011 -0.139598 0.363371 255 125 0
0.147677 0.686117 -0.21365399999999998 255 125 0
-0.15604300000000002 -0.2114 0.473091 255 125 0
-0.452766 0.240984 -0.745915 255 125 0
-0.231031 -0.493573 0.5467380000000001 255 125 0
0.10655 0.541874 -0.710414 255 125 0
-0.5126890000000001 -0.277907 0.159473 255 125 0
-0.386916 -0.466883 0.25004099999999996 255 125 0
0.124725 -0.257787 0.41988500000000006 255 125 0
-0.24450999999999998 -0.459236 0.5711510000000001 255 125 0
0.41798100000000005 -0.339963 0.028609 255 125 0
-0.502864 -0.41169300000000003 0.11016199999999998 255 125 0
-0.033510000000000005 0.22717800000000002 0.310148 255 125 0
-0.118777 -0.6108 0.43416499999999997 255 125 0
0.156028 0.163302 0.303884 255 125 0
-0.281389 0.269595 0.187695 255 125 0
-0.35785300000000003 0.448219 -0.742051 255 125 0
0.22997199999999998 0.126591 0.170526 255 125 0
0.165911 0.15575999999999998 0.280183 255 125 0
0.42315600000000003 -0.35675999999999997 -0.010439 255 125 0
-0.020183 0.075398 0.405756 255 125 0
-0.47764799999999996 0.2293 -0.760896 255 125 0
0.6348689999999999 0.735224 -0.717479 255 125 0
-0.099345 -0.352649 0.626542 255 125 0
-0.170489 0.6463220000000001 -0.64472 255 125 0
-0.26509699999999997 0.15370599999999998 0.335422 255 125 0
-0.32363000000000003 -0.176234 0.407597 255 125 0
0.175554 -0.325257 0.392678 255 125 0
0.374419 -0.131753 0.16627999999999998 255 125 0
-0.308295 -0.558816 0.297562 255 125 0
0.246405 0.9557399999999999 -0.212427 255 125 0
0.196769 0.22210100000000002 0.126186 255 125 0
0.051062 0.16258499999999998 0.351024 255 125 0
-0.06999 0.43388699999999997 -0.5595829999999999 255 125 0
-0.377577 0.393276 -0.715357 255 125 0
0.44149799999999995 -0.359361 -0.091956 255 125 0
0.248486 -0.58217 0.200452 255 125 0
-0.008414 0.265386 0.263469 255 125 0
-0.194203 0.261311 0.26952800000000005 255 125 0
-0.092515 0.354799 0.154007 255 125 0
0.637504 0.889792 -0.744703 255 125 0
0.228771 0.592363 -0.71418 255 125 0
-0.307488 0.22383499999999998 0.21016100000000001 255 125 0
0.376348 -0.32652600000000004 0.149144 255 125 0
0.349024 0.8476610000000001 -0.138897 255 125 0
-0.413425 -0.14777 0.273388 255 125 0
-0.17136500000000002 -0.279012 0.461521 255 125 0
-0.311246 0.170598 0.303199 255 125 0
